382967.27 97172.3 114.9
382972.27 97172.31 114
382977.27 97172.31 113.2
382982.27 97172.31 112.3
382987.27 97172.31 111.5
382992.27 97172.31 110.6
382997.27 97172.31 109.7
382687.28 97167.3 118.6
382692.28 97167.3 117.4
382697.28 97167.3 116
382702.28 97167.3 114.4
382707.28 97167.3 112.7
382712.28 97167.3 111
382717.28 97167.3 109.3
382722.28 97167.3 107.7
382727.28 97167.3 106.3
382732.28 97167.3 105
382737.28 97167.3 103.8
382742.28 97167.3 102.7
382747.28 97167.3 101.7
382752.28 97167.3 100.5
382757.28 97167.3 99.2
382762.28 97167.3 98
382767.28 97167.3 97.1
382772.28 97167.3 96.6
382777.28 97167.3 96.6
382782.28 97167.3 96.8
382787.28 97167.3 97.2
382792.28 97167.3 97.8
382797.28 97167.3 98.8
382802.28 97167.3 100
382807.28 97167.3 101.5
382812.28 97167.3 103.2
382817.28 97167.3 105.1
382822.28 97167.3 107
382827.28 97167.3 109
382832.28 97167.3 111
382837.28 97167.3 113
382842.28 97167.3 115
382847.28 97167.3 116.9
382852.28 97167.3 118.8
382857.28 97167.3 120.2
382862.28 97167.3 121.3
382867.28 97167.3 122.3
382872.28 97167.3 123.4
382877.28 97167.3 124.5
382882.28 97167.3 125.8
382887.28 97167.3 126.4
382892.28 97167.3 127
382897.28 97167.3 127.6
382902.27 97167.3 127.5
382907.27 97167.3 126.8
382912.27 97167.3 125.8
382917.27 97167.3 124.7
382922.27 97167.3 123.5
382927.27 97167.3 122.2
382932.27 97167.3 120.8
382937.27 97167.3 119.3
382942.27 97167.3 118
382947.27 97167.3 117.1
382952.27 97167.3 116.3
382957.27 97167.3 115.4
382962.27 97167.3 114.5
382967.27 97167.3 113.6
382972.27 97167.31 112.6
382977.27 97167.31 111.8
382982.27 97167.31 110.9
382987.27 97167.31 109.9
382992.27 97167.31 109
382997.27 97167.31 108.2
382687.28 97162.3 117.9
382692.28 97162.3 116.7
382697.28 97162.3 115.3
382702.28 97162.3 113.9
382707.28 97162.3 112.2
382712.28 97162.3 110.5
382717.28 97162.3 108.8
382722.28 97162.3 107.1
382727.28 97162.3 105.6
382732.28 97162.3 104.2
382737.28 97162.3 102.9
382742.28 97162.3 101.9
382747.28 97162.3 100.8
382752.28 97162.3 99.7
382757.28 97162.3 98.5
382762.28 97162.3 97.4
382767.28 97162.3 96.5
382772.28 97162.3 96.2
382777.28 97162.3 96.3
382782.28 97162.3 96.6
382787.28 97162.3 97
382792.28 97162.3 97.7
382797.28 97162.3 98.7
382802.28 97162.3 100.1
382807.28 97162.3 101.7
382812.28 97162.3 103.3
382817.28 97162.3 105.1
382822.28 97162.3 107
382827.28 97162.3 108.9
382832.28 97162.3 110.9
382837.28 97162.3 113
382842.28 97162.3 115
382847.28 97162.3 116.9
382852.28 97162.3 118.8
382857.28 97162.3 120.2
382862.28 97162.3 121.4
382867.28 97162.3 122.5
382872.28 97162.3 123.5
382877.28 97162.3 124.8
382882.28 97162.3 125.9
382887.28 97162.3 126.3
382892.28 97162.3 126.7
382897.28 97162.3 127
382902.27 97162.3 126.5
382907.27 97162.3 125.7
382912.27 97162.3 124.8
382917.27 97162.3 123.8
382922.27 97162.3 122.6
382927.27 97162.3 121.3
382932.27 97162.3 119.9
382937.27 97162.3 118.4
382942.27 97162.3 117.2
382947.27 97162.3 116
382952.27 97162.3 115.1
382957.27 97162.3 114.2
382962.27 97162.3 113.2
382967.27 97162.31 112.3
382972.27 97162.31 111.3
382977.27 97162.31 110.4
382982.27 97162.31 109.4
382987.27 97162.31 108.3
382992.27 97162.31 107.4
382997.27 97162.31 106.6
382687.28 97157.3 117.2
382692.28 97157.3 116
382697.28 97157.3 114.7
382702.28 97157.3 113.3
382707.28 97157.3 111.8
382712.28 97157.3 110.2
382717.28 97157.3 108.4
382722.28 97157.3 106.7
382727.28 97157.3 105
382732.28 97157.3 103.5
382737.28 97157.3 102.2
382742.28 97157.3 101.2
382747.28 97157.3 100.1
382752.28 97157.3 99
382757.28 97157.3 97.7
382762.28 97157.3 96.7
382767.28 97157.3 96
382772.28 97157.3 95.9
382777.28 97157.3 96.1
382782.28 97157.3 96.5
382787.28 97157.3 97
382792.28 97157.3 97.8
382797.28 97157.3 99
382802.28 97157.3 100.4
382807.28 97157.3 102
382812.28 97157.3 103.7
382817.28 97157.3 105.5
382822.28 97157.3 107.3
382827.28 97157.3 109.2
382832.28 97157.3 111.1
382837.28 97157.3 113
382842.28 97157.3 114.8
382847.28 97157.3 116.6
382852.28 97157.3 118.4
382857.28 97157.3 120.3
382862.28 97157.3 121.9
382867.28 97157.3 122.9
382872.28 97157.3 123.7
382877.28 97157.3 125
382882.28 97157.3 125.9
382887.28 97157.3 126.2
382892.28 97157.3 126.3
382897.28 97157.3 126.1
382902.28 97157.3 125.4
382907.27 97157.3 124.7
382912.27 97157.3 123.9
382917.27 97157.3 122.9
382922.27 97157.3 121.7
382927.27 97157.3 120.4
382932.27 97157.3 119.1
382937.27 97157.3 117.7
382942.27 97157.3 116.4
382947.27 97157.3 115.2
382952.27 97157.3 114
382957.27 97157.3 113
382962.27 97157.3 112
382967.27 97157.31 111
382972.27 97157.31 110
382977.27 97157.31 109
382982.27 97157.31 107.9
382987.27 97157.31 106.8
382992.27 97157.31 105.8
382997.27 97157.31 105.1
382687.28 97152.3 116.5
382692.28 97152.3 115.2
382697.28 97152.3 114
382702.28 97152.3 112.7
382707.28 97152.3 111.3
382712.28 97152.3 109.8
382717.28 97152.3 108.1
382722.28 97152.3 106.4
382727.28 97152.3 104.7
382732.28 97152.3 103.1
382737.28 97152.3 101.7
382742.28 97152.3 100.6
382747.28 97152.3 99.5
382752.28 97152.3 98.3
382757.28 97152.3 97
382762.28 97152.3 96
382767.28 97152.3 95.5
382772.28 97152.3 95.6
382777.28 97152.3 95.9
382782.28 97152.3 96.3
382787.28 97152.3 97
382792.28 97152.3 98.1
382797.28 97152.3 99.4
382802.28 97152.3 100.9
382807.28 97152.3 102.5
382812.28 97152.3 104.3
382817.28 97152.3 106.1
382822.28 97152.3 107.9
382827.28 97152.3 109.7
382832.28 97152.3 111.5
382837.28 97152.3 113.4
382842.28 97152.3 115.1
382847.28 97152.3 116.9
382852.28 97152.3 118.9
382857.28 97152.3 120.8
382862.28 97152.3 122.3
382867.28 97152.3 123.5
382872.28 97152.3 124.3
382877.28 97152.3 125.3
382882.28 97152.3 125.9
382887.28 97152.3 126
382892.28 97152.3 125.8
382897.28 97152.3 125.2
382902.28 97152.3 124.5
382907.27 97152.3 123.8
382912.27 97152.3 123
382917.27 97152.3 122
382922.27 97152.3 120.9
382927.27 97152.3 119.6
382932.27 97152.3 118.3
382937.27 97152.3 116.9
382942.27 97152.3 115.6
382947.27 97152.3 114.3
382952.27 97152.3 113
382957.27 97152.3 111.9
382962.27 97152.3 110.9
382967.27 97152.31 109.9
382972.27 97152.31 108.8
382977.27 97152.31 107.7
382982.27 97152.31 106.5
382987.27 97152.31 105.4
382992.27 97152.31 104.3
382997.27 97152.31 103.7
382687.28 97147.3 115.8
382692.28 97147.3 114.5
382697.28 97147.3 113.2
382702.28 97147.3 111.9
382707.28 97147.3 110.7
382712.28 97147.3 109.3
382717.28 97147.3 107.8
382722.28 97147.3 106.1
382727.28 97147.3 104.4
382732.28 97147.3 102.7
382737.28 97147.3 101.4
382742.28 97147.3 100.1
382747.28 97147.3 98.8
382752.28 97147.3 97.5
382757.28 97147.3 96.2
382762.28 97147.3 95.4
382767.28 97147.3 95.1
382772.28 97147.3 95.3
382777.28 97147.3 95.7
382782.28 97147.3 96.3
382787.28 97147.3 97.1
382792.28 97147.3 98.4
382797.28 97147.3 99.8
382802.28 97147.3 101.4
382807.28 97147.3 103.2
382812.28 97147.3 105
382817.28 97147.3 106.8
382822.28 97147.3 108.6
382827.28 97147.3 110.4
382832.28 97147.3 112.2
382837.28 97147.3 114
382842.28 97147.3 115.7
382847.28 97147.3 117.6
382852.28 97147.3 119.6
382857.28 97147.3 121.4
382862.28 97147.3 122.8
382867.28 97147.3 123.8
382872.28 97147.3 124.5
382877.28 97147.3 125.5
382882.28 97147.3 125.9
382887.28 97147.3 125.6
382892.28 97147.3 125.2
382897.28 97147.3 124.5
382902.28 97147.3 123.8
382907.27 97147.3 123
382912.27 97147.3 122.2
382917.27 97147.3 121.2
382922.27 97147.3 120.1
382927.27 97147.3 118.9
382932.27 97147.3 117.5
382937.27 97147.3 116.1
382942.27 97147.3 114.6
382947.27 97147.3 113.3
382952.27 97147.3 112
382957.27 97147.3 110.9
382962.27 97147.3 109.9
382967.27 97147.31 108.8
382972.27 97147.31 107.7
382977.27 97147.31 106.5
382982.27 97147.31 105.3
382987.27 97147.31 104.2
382992.27 97147.31 103
382997.27 97147.31 102.3
382687.28 97142.3 115
382692.28 97142.3 113.7
382697.28 97142.3 112.4
382702.28 97142.3 111.2
382707.28 97142.3 110
382712.28 97142.3 108.7
382717.28 97142.3 107.3
382722.28 97142.3 105.7
382727.28 97142.3 104
382732.28 97142.3 102.4
382737.28 97142.3 100.9
382742.28 97142.3 99.6
382747.28 97142.3 98.1
382752.28 97142.3 96.6
382757.28 97142.3 95.4
382762.28 97142.3 94.8
382767.28 97142.3 94.8
382772.28 97142.3 95.1
382777.28 97142.3 95.5
382782.28 97142.3 96.3
382787.28 97142.3 97.4
382792.28 97142.3 98.8
382797.28 97142.3 100.4
382802.28 97142.3 102.1
382807.28 97142.3 103.9
382812.28 97142.3 105.7
382817.28 97142.3 107.6
382822.28 97142.3 109.4
382827.28 97142.3 111.2
382832.28 97142.3 113
382837.28 97142.3 114.8
382842.28 97142.3 116.6
382847.28 97142.3 118.6
382852.28 97142.3 120.5
382857.28 97142.3 122
382862.28 97142.3 123.3
382867.28 97142.3 124.2
382872.28 97142.3 124.7
382877.28 97142.3 125.5
382882.28 97142.3 125.7
382887.28 97142.3 125.1
382892.28 97142.3 124.5
382897.28 97142.3 123.9
382902.28 97142.3 123.2
382907.27 97142.3 122.4
382912.27 97142.3 121.5
382917.27 97142.3 120.6
382922.27 97142.3 119.5
382927.27 97142.3 118.1
382932.27 97142.3 116.7
382937.27 97142.3 115.2
382942.27 97142.3 113.7
382947.27 97142.3 112.3
382952.27 97142.3 111
382957.27 97142.3 109.8
382962.27 97142.31 108.8
382967.27 97142.31 107.8
382972.27 97142.31 106.7
382977.27 97142.31 105.5
382982.27 97142.31 104.3
382987.27 97142.31 103
382992.27 97142.31 101.8
382997.27 97142.31 100.8
382687.28 97137.3 114.3
382692.28 97137.3 113
382697.28 97137.3 111.7
382702.28 97137.3 110.4
382707.28 97137.3 109.2
382712.28 97137.3 108
382717.28 97137.3 106.6
382722.28 97137.3 105.1
382727.28 97137.3 103.5
382732.28 97137.3 101.9
382737.28 97137.3 100.4
382742.28 97137.3 98.9
382747.28 97137.3 97.1
382752.28 97137.3 95.6
382757.28 97137.3 94.5
382762.28 97137.3 94.2
382767.28 97137.3 94.5
382772.28 97137.3 94.9
382777.28 97137.3 95.5
382782.28 97137.3 96.5
382787.28 97137.3 97.8
382792.28 97137.3 99.3
382797.28 97137.3 101
382802.28 97137.3 102.8
382807.28 97137.3 104.6
382812.28 97137.3 106.5
382817.28 97137.3 108.3
382822.28 97137.3 110.2
382827.28 97137.3 112
382832.28 97137.3 113.8
382837.28 97137.3 115.6
382842.28 97137.3 117.6
382847.28 97137.3 119.6
382852.28 97137.3 121.3
382857.28 97137.3 122.7
382862.28 97137.3 123.8
382867.28 97137.3 124.5
382872.28 97137.3 124.9
382877.28 97137.3 125.5
382882.28 97137.3 125.5
382887.28 97137.3 124.8
382892.28 97137.3 124.2
382897.28 97137.3 123.5
382902.28 97137.3 122.7
382907.27 97137.3 121.8
382912.27 97137.3 120.9
382917.27 97137.3 119.9
382922.27 97137.3 118.5
382927.27 97137.3 117.1
382932.27 97137.3 115.6
382937.27 97137.3 114.2
382942.27 97137.3 112.7
382947.27 97137.3 111.1
382952.27 97137.3 109.7
382957.27 97137.3 108.6
382962.27 97137.31 107.7
382967.27 97137.31 106.7
382972.27 97137.31 105.5
382977.27 97137.31 104.2
382982.27 97137.31 103.1
382987.27 97137.31 101.8
382992.27 97137.31 100.6
382997.27 97137.31 99.2
382687.28 97132.3 113.5
382692.28 97132.3 112.2
382697.28 97132.3 110.9
382702.28 97132.3 109.7
382707.28 97132.3 108.4
382712.28 97132.3 107.1
382717.28 97132.3 105.8
382722.28 97132.3 104.5
382727.28 97132.3 102.9
382732.28 97132.3 101.3
382737.28 97132.3 99.8
382742.28 97132.3 97.9
382747.28 97132.3 96.1
382752.28 97132.3 94.6
382757.28 97132.3 93.7
382762.28 97132.3 93.7
382767.28 97132.3 94.2
382772.28 97132.3 94.8
382777.28 97132.3 95.6
382782.28 97132.3 96.8
382787.28 97132.3 98.3
382792.28 97132.3 99.9
382797.28 97132.3 101.7
382802.28 97132.3 103.5
382807.28 97132.3 105.4
382812.28 97132.3 107.2
382817.28 97132.3 109.1
382822.28 97132.3 111
382827.28 97132.3 112.8
382832.28 97132.3 114.7
382837.28 97132.3 116.5
382842.28 97132.3 118.7
382847.28 97132.3 120.5
382852.28 97132.3 122.1
382857.28 97132.3 123.4
382862.28 97132.3 124.3
382867.28 97132.3 124.8
382872.28 97132.3 125
382877.28 97132.3 125.3
382882.28 97132.3 125.2
382887.28 97132.3 124.5
382892.28 97132.3 123.8
382897.28 97132.3 123
382902.28 97132.3 122.1
382907.28 97132.3 121.1
382912.27 97132.3 120
382917.27 97132.3 118.8
382922.27 97132.3 116.9
382927.27 97132.3 115.5
382932.27 97132.3 114
382937.27 97132.3 112.5
382942.27 97132.3 111
382947.27 97132.3 109.4
382952.27 97132.3 107.8
382957.27 97132.3 106.4
382962.27 97132.31 105.5
382967.27 97132.31 104.4
382972.27 97132.31 102.9
382977.27 97132.31 101.3
382982.27 97132.31 100.4
382987.27 97132.31 99.7
382992.27 97132.31 99
382997.27 97132.31 97.7
382687.28 97127.3 112.6
382692.28 97127.3 111.4
382697.28 97127.3 110.2
382702.28 97127.3 108.9
382707.28 97127.3 107.6
382712.28 97127.3 106.4
382717.28 97127.3 105.1
382722.28 97127.3 103.7
382727.28 97127.3 102.2
382732.28 97127.3 100.7
382737.28 97127.3 98.8
382742.28 97127.3 96.9
382747.28 97127.3 95
382752.28 97127.3 93.6
382757.28 97127.3 93.1
382762.28 97127.3 93.4
382767.28 97127.3 94
382772.28 97127.3 94.7
382777.28 97127.3 95.9
382782.28 97127.3 97.2
382787.28 97127.3 98.8
382792.28 97127.3 100.6
382797.28 97127.3 102.4
382802.28 97127.3 104.2
382807.28 97127.3 106.1
382812.28 97127.3 108
382817.28 97127.3 109.9
382822.28 97127.3 111.8
382827.28 97127.3 113.7
382832.28 97127.3 115.6
382837.28 97127.3 117.6
382842.28 97127.3 119.7
382847.28 97127.3 121.4
382852.28 97127.3 122.9
382857.28 97127.3 123.9
382862.28 97127.3 124.6
382867.28 97127.3 125
382872.28 97127.3 125
382877.28 97127.3 125.2
382882.28 97127.3 124.9
382887.28 97127.3 124.1
382892.28 97127.3 123.3
382897.28 97127.3 122.2
382902.28 97127.3 121
382907.28 97127.3 119.6
382912.27 97127.3 118.1
382917.27 97127.3 116.5
382922.27 97127.3 114.7
382927.27 97127.3 113.3
382932.27 97127.3 111.8
382937.27 97127.3 110.3
382942.27 97127.3 108.8
382947.27 97127.3 107.2
382952.27 97127.3 105.6
382957.27 97127.31 104.2
382962.27 97127.31 103
382967.27 97127.31 101.7
382972.27 97127.31 100.2
382977.27 97127.31 98.6
382982.27 97127.31 97.7
382987.27 97127.31 97
382992.27 97127.31 96.3
382997.27 97127.31 95.5
382687.28 97122.3 111.7
382692.28 97122.3 110.6
382697.28 97122.3 109.4
382702.28 97122.3 108.2
382707.28 97122.3 106.9
382712.28 97122.3 105.6
382717.28 97122.3 104.3
382722.28 97122.3 103
382727.28 97122.3 101.5
382732.28 97122.3 99.9
382737.28 97122.3 97.9
382742.28 97122.3 95.8
382747.28 97122.3 93.9
382752.28 97122.3 92.7
382757.28 97122.3 92.6
382762.28 97122.3 93.2
382767.28 97122.3 93.9
382772.28 97122.3 94.9
382777.28 97122.3 96.2
382782.28 97122.3 97.7
382787.28 97122.3 99.4
382792.28 97122.3 101.2
382797.28 97122.3 103.1
382802.28 97122.3 105
382807.28 97122.3 106.9
382812.28 97122.3 108.8
382817.28 97122.3 110.7
382822.28 97122.3 112.6
382827.28 97122.3 114.6
382832.28 97122.3 116.5
382837.28 97122.3 118.7
382842.28 97122.3 120.6
382847.28 97122.3 122.2
382852.28 97122.3 123.5
382857.28 97122.3 124.4
382862.28 97122.3 124.8
382867.28 97122.3 125.1
382872.28 97122.3 125
382877.28 97122.3 125
382882.28 97122.3 124.6
382887.28 97122.3 123.3
382892.28 97122.3 122
382897.28 97122.3 121
382902.28 97122.3 119.6
382907.28 97122.3 118.1
382912.27 97122.3 116.6
382917.27 97122.3 114.9
382922.27 97122.3 113.3
382927.27 97122.3 111.8
382932.27 97122.3 110.3
382937.27 97122.3 108.8
382942.27 97122.3 107.3
382947.27 97122.3 105.8
382952.27 97122.3 104.2
382957.27 97122.31 102.7
382962.27 97122.31 101.3
382967.27 97122.31 99.8
382972.27 97122.31 98.3
382977.27 97122.31 96.8
382982.27 97122.31 95.8
382987.27 97122.31 95
382992.27 97122.31 94.2
382997.27 97122.31 93.5
382687.28 97117.3 110.7
382692.28 97117.3 109.8
382697.28 97117.3 108.6
382702.28 97117.3 107.4
382707.28 97117.3 106.1
382712.28 97117.3 104.9
382717.28 97117.3 103.6
382722.28 97117.3 102.2
382727.28 97117.3 100.8
382732.28 97117.3 99
382737.28 97117.3 96.9
382742.28 97117.3 94.8
382747.28 97117.3 93
382752.28 97117.3 92.1
382757.28 97117.3 92.3
382762.28 97117.3 93
382767.28 97117.3 94
382772.28 97117.3 95.2
382777.28 97117.3 96.6
382782.28 97117.3 98.2
382787.28 97117.3 100
382792.28 97117.3 101.9
382797.28 97117.3 103.8
382802.28 97117.3 105.7
382807.28 97117.3 107.7
382812.28 97117.3 109.6
382817.28 97117.3 111.5
382822.28 97117.3 113.5
382827.28 97117.3 115.5
382832.28 97117.3 117.6
382837.28 97117.3 119.8
382842.28 97117.3 121.5
382847.28 97117.3 123
382852.28 97117.3 124.1
382857.28 97117.3 124.7
382862.28 97117.3 125
382867.28 97117.3 125.1
382872.28 97117.3 124.8
382877.28 97117.3 124.8
382882.28 97117.3 124.2
382887.28 97117.3 122.4
382892.28 97117.3 121.1
382897.28 97117.3 120.2
382902.28 97117.3 118.7
382907.28 97117.3 117.2
382912.27 97117.3 115.6
382917.27 97117.3 114.1
382922.27 97117.3 112.5
382927.27 97117.3 111
382932.27 97117.3 109.5
382937.27 97117.3 108
382942.27 97117.3 106.5
382947.27 97117.3 105
382952.27 97117.3 103.5
382957.27 97117.31 102
382962.27 97117.31 100.5
382967.27 97117.31 99
382972.27 97117.31 97.5
382977.27 97117.31 96
382982.27 97117.31 94.8
382987.27 97117.31 93.7
382992.27 97117.31 92.8
382997.27 97117.31 91.9
382687.28 97112.3 109.7
382692.28 97112.3 108.9
382697.28 97112.3 107.9
382702.28 97112.3 106.7
382707.28 97112.3 105.4
382712.28 97112.3 104.1
382717.28 97112.3 102.8
382722.28 97112.3 101.5
382727.28 97112.3 100
382732.28 97112.3 98.2
382737.28 97112.3 95.9
382742.28 97112.3 93.9
382747.28 97112.3 92.2
382752.28 97112.3 91.8
382757.28 97112.3 92.2
382762.28 97112.3 93
382767.28 97112.3 94.2
382772.28 97112.3 95.5
382777.28 97112.3 97.1
382782.28 97112.3 98.8
382787.28 97112.3 100.6
382792.28 97112.3 102.5
382797.28 97112.3 104.5
382802.28 97112.3 106.4
382807.28 97112.3 108.4
382812.28 97112.3 110.4
382817.28 97112.3 112.3
382822.28 97112.3 114.3
382827.28 97112.3 116.4
382832.28 97112.3 118.7
382837.28 97112.3 120.7
382842.28 97112.3 122.4
382847.28 97112.3 123.6
382852.28 97112.3 124.5
382857.28 97112.3 125
382862.28 97112.3 125.1
382867.28 97112.3 125.1
382872.28 97112.3 124.7
382877.28 97112.3 124.5
382882.28 97112.3 123.9
382887.28 97112.3 121.8
382892.28 97112.3 120.6
382897.28 97112.3 119.8
382902.28 97112.3 118.4
382907.28 97112.3 116.9
382912.28 97112.3 115.4
382917.27 97112.3 113.9
382922.27 97112.3 112.4
382927.27 97112.3 111
382932.27 97112.3 109.5
382937.27 97112.3 108
382942.27 97112.3 106.5
382947.27 97112.3 105
382952.27 97112.3 103.6
382957.27 97112.31 102.1
382962.27 97112.31 100.8
382967.27 97112.31 99.3
382972.27 97112.31 97.8
382977.27 97112.31 96.3
382982.27 97112.31 94.7
382987.27 97112.31 93.4
382992.27 97112.31 92.1
382997.27 97112.31 91.1
382687.28 97107.3 108.8
382692.28 97107.3 108
382697.28 97107.3 107
382702.28 97107.3 105.9
382707.28 97107.3 104.7
382712.28 97107.3 103.4
382717.28 97107.3 102
382722.28 97107.3 100.8
382727.28 97107.3 99.2
382732.28 97107.3 97.3
382737.28 97107.3 95
382742.28 97107.3 93
382747.28 97107.3 91.5
382752.28 97107.3 91.5
382757.28 97107.3 92.1
382762.28 97107.3 93.1
382767.28 97107.3 94.5
382772.28 97107.3 95.9
382777.28 97107.3 97.6
382782.28 97107.3 99.4
382787.28 97107.3 101.3
382792.28 97107.3 103.2
382797.28 97107.3 105.2
382802.28 97107.3 107.2
382807.28 97107.3 109.2
382812.28 97107.3 111.1
382817.28 97107.3 113.1
382822.28 97107.3 115.1
382827.28 97107.3 117.3
382832.28 97107.3 119.6
382837.28 97107.3 121.5
382842.28 97107.3 123
382847.28 97107.3 124.2
382852.28 97107.3 124.8
382857.28 97107.3 125.1
382862.28 97107.3 125.1
382867.28 97107.3 125
382872.28 97107.3 124.5
382877.28 97107.3 124.3
382882.28 97107.3 123.7
382887.28 97107.3 121.5
382892.28 97107.3 120.4
382897.28 97107.3 119.7
382902.28 97107.3 118.6
382907.28 97107.3 117.1
382912.28 97107.3 115.7
382917.27 97107.3 114.3
382922.27 97107.3 112.8
382927.27 97107.3 111.4
382932.27 97107.3 109.9
382937.27 97107.3 108.5
382942.27 97107.3 107.2
382947.27 97107.3 105.9
382952.27 97107.31 104.6
382957.27 97107.31 103.3
382962.27 97107.31 102.1
382967.27 97107.31 100.8
382972.27 97107.31 99.4
382977.27 97107.31 97.7
382982.27 97107.31 95.8
382987.27 97107.31 94
382992.27 97107.31 92.4
382997.27 97107.31 91
382687.28 97102.3 107.9
382692.28 97102.3 107.1
382697.28 97102.3 106.1
382702.28 97102.3 105.1
382707.28 97102.3 103.9
382712.28 97102.3 102.6
382717.28 97102.3 101.3
382722.28 97102.3 99.9
382727.28 97102.3 98.2
382732.28 97102.3 96.2
382737.28 97102.3 94
382742.28 97102.3 92.1
382747.28 97102.3 91.1
382752.28 97102.3 91.3
382757.28 97102.3 92.1
382762.28 97102.3 93.3
382767.28 97102.3 94.8
382772.28 97102.3 96.5
382777.28 97102.3 98.2
382782.28 97102.3 100
382787.28 97102.3 101.9
382792.28 97102.3 103.9
382797.28 97102.3 105.9
382802.28 97102.3 107.9
382807.28 97102.3 109.9
382812.28 97102.3 111.9
382817.28 97102.3 113.9
382822.28 97102.3 115.9
382827.28 97102.3 118.1
382832.28 97102.3 120.3
382837.28 97102.3 122.1
382842.28 97102.3 123.4
382847.28 97102.3 124.4
382852.28 97102.3 125
382857.28 97102.3 125.2
382862.28 97102.3 125.1
382867.28 97102.3 124.7
382872.28 97102.3 124.1
382877.28 97102.3 124.1
382882.28 97102.3 123.5
382887.28 97102.3 121.3
382892.28 97102.3 120.5
382897.28 97102.3 119.9
382902.28 97102.3 119.2
382907.28 97102.3 117.5
382912.28 97102.3 116.1
382917.27 97102.3 114.7
382922.27 97102.3 113.4
382927.27 97102.3 112.1
382932.27 97102.3 110.8
382937.27 97102.3 109.6
382942.27 97102.3 108.5
382947.27 97102.3 107.4
382952.27 97102.31 106.4
382957.27 97102.31 105.5
382962.27 97102.31 104.4
382967.27 97102.31 103.4
382972.27 97102.31 102.1
382977.27 97102.31 100.2
382982.27 97102.31 98
382987.27 97102.31 95.7
382992.27 97102.31 93.6
382997.27 97102.31 91.7
382687.28 97097.3 107
382692.28 97097.3 106.2
382697.28 97097.3 105.3
382702.28 97097.3 104.2
382707.28 97097.3 103.1
382712.28 97097.3 101.8
382717.28 97097.3 100.5
382722.28 97097.3 98.9
382727.28 97097.3 97.1
382732.28 97097.3 95
382737.28 97097.3 92.9
382742.28 97097.3 91.3
382747.28 97097.3 90.8
382752.28 97097.3 91.2
382757.28 97097.3 92.2
382762.28 97097.3 93.5
382767.28 97097.3 95.1
382772.28 97097.3 96.9
382777.28 97097.3 98.7
382782.28 97097.3 100.6
382787.28 97097.3 102.5
382792.28 97097.3 104.5
382797.28 97097.3 106.6
382802.28 97097.3 108.6
382807.28 97097.3 110.6
382812.28 97097.3 112.6
382817.28 97097.3 114.6
382822.28 97097.3 116.7
382827.28 97097.3 118.9
382832.28 97097.3 120.8
382837.28 97097.3 122.4
382842.28 97097.3 123.6
382847.28 97097.3 124.5
382852.28 97097.3 124.9
382857.28 97097.3 125.1
382862.28 97097.3 124.9
382867.28 97097.3 124.2
382872.28 97097.3 123.8
382877.28 97097.3 123.9
382882.28 97097.3 123.3
382887.28 97097.3 121.3
382892.28 97097.3 120.7
382897.28 97097.3 120.1
382902.28 97097.3 119.4
382907.28 97097.3 118.3
382912.28 97097.3 116.6
382917.27 97097.3 115.3
382922.27 97097.3 114.1
382927.27 97097.3 113
382932.27 97097.3 112.1
382937.27 97097.3 111.2
382942.27 97097.3 110.4
382947.27 97097.3 109.6
382952.27 97097.31 108.9
382957.27 97097.31 108.3
382962.27 97097.31 107.7
382967.27 97097.31 107.1
382972.27 97097.31 105.9
382977.27 97097.31 103.5
382982.27 97097.31 101.1
382987.27 97097.31 98.4
382992.27 97097.31 95.6
382997.27 97097.31 93.3
382687.28 97092.3 106
382692.28 97092.3 105.2
382697.28 97092.3 104.4
382702.28 97092.3 103.4
382707.28 97092.3 102.2
382712.28 97092.3 101
382717.28 97092.3 99.7
382722.28 97092.3 98
382727.28 97092.3 96.1
382732.28 97092.3 94
382737.28 97092.3 92
382742.28 97092.3 90.6
382747.28 97092.3 90.5
382752.28 97092.3 91.2
382757.28 97092.3 92.3
382762.28 97092.3 93.7
382767.28 97092.3 95.4
382772.28 97092.3 97.2
382777.28 97092.3 99.1
382782.28 97092.3 101.1
382787.28 97092.3 103.1
382792.28 97092.3 105.1
382797.28 97092.3 107.1
382802.28 97092.3 109.2
382807.28 97092.3 111.3
382812.28 97092.3 113.3
382817.28 97092.3 115.3
382822.28 97092.3 117.4
382827.28 97092.3 119.5
382832.28 97092.3 121.3
382837.28 97092.3 122.6
382842.28 97092.3 123.7
382847.28 97092.3 124.4
382852.28 97092.3 124.8
382857.28 97092.3 124.8
382862.28 97092.3 124.7
382867.28 97092.3 124.5
382872.28 97092.3 123.7
382877.28 97092.3 123.7
382882.28 97092.3 123.2
382887.28 97092.3 121.4
382892.28 97092.3 120.9
382897.28 97092.3 120.3
382902.28 97092.3 119.5
382907.28 97092.3 118.4
382912.28 97092.3 117.1
382917.27 97092.3 115.9
382922.27 97092.3 114.9
382927.27 97092.3 114
382932.27 97092.3 113.2
382937.27 97092.3 112.5
382942.27 97092.3 111.7
382947.27 97092.3 111.1
382952.27 97092.31 110.6
382957.27 97092.31 110.1
382962.27 97092.31 109.8
382967.27 97092.31 109.2
382972.27 97092.31 108.1
382977.27 97092.31 105.9
382982.27 97092.31 103.7
382987.27 97092.31 101.2
382992.27 97092.31 98.3
382997.27 97092.31 95.7
382687.28 97087.3 104.9
382692.28 97087.3 104.2
382697.28 97087.3 103.4
382702.28 97087.3 102.4
382707.28 97087.3 101.3
382712.28 97087.3 100.2
382717.28 97087.3 98.8
382722.28 97087.3 97.1
382727.28 97087.3 95.1
382732.28 97087.3 93.1
382737.28 97087.3 91.2
382742.28 97087.3 90
382747.28 97087.3 90.2
382752.28 97087.3 91.1
382757.28 97087.3 92.4
382762.28 97087.3 93.9
382767.28 97087.3 95.6
382772.28 97087.3 97.5
382777.28 97087.3 99.4
382782.28 97087.3 101.4
382787.28 97087.3 103.4
382792.28 97087.3 105.6
382797.28 97087.3 107.7
382802.28 97087.3 109.7
382807.28 97087.3 111.8
382812.28 97087.3 113.9
382817.28 97087.3 116
382822.28 97087.3 118
382827.28 97087.3 120
382832.28 97087.3 121.6
382837.28 97087.3 122.7
382842.28 97087.3 123.6
382847.28 97087.3 124.1
382852.28 97087.3 124.4
382857.28 97087.3 124.5
382862.28 97087.3 124.4
382867.28 97087.3 124.1
382872.28 97087.3 123.5
382877.28 97087.3 123.4
382882.28 97087.3 122.9
382887.28 97087.3 121.6
382892.28 97087.3 121.1
382897.28 97087.3 120.5
382902.28 97087.3 119.7
382907.28 97087.3 118.7
382912.28 97087.3 117.6
382917.28 97087.3 116.5
382922.27 97087.3 115.4
382927.27 97087.3 114.6
382932.27 97087.3 113.7
382937.27 97087.3 113
382942.27 97087.3 112.1
382947.27 97087.31 111.4
382952.27 97087.31 110.9
382957.27 97087.31 110.5
382962.27 97087.31 110.1
382967.27 97087.31 109.6
382972.27 97087.31 108.7
382977.27 97087.31 106.8
382982.27 97087.31 104.3
382987.27 97087.31 101.9
382992.27 97087.31 99.7
382997.27 97087.31 97.7
382687.28 97082.3 103.8
382692.28 97082.3 103.1
382697.28 97082.3 102.3
382702.28 97082.3 101.4
382707.28 97082.3 100.3
382712.28 97082.3 99.2
382717.28 97082.3 97.8
382722.28 97082.3 96.2
382727.28 97082.3 94.2
382732.28 97082.3 92.3
382737.28 97082.3 90.5
382742.28 97082.3 89.6
382747.28 97082.3 89.9
382752.28 97082.3 90.9
382757.28 97082.3 92.3
382762.28 97082.3 93.9
382767.28 97082.3 95.8
382772.28 97082.3 97.7
382777.28 97082.3 99.6
382782.28 97082.3 101.6
382787.28 97082.3 103.6
382792.28 97082.3 105.8
382797.28 97082.3 108
382802.28 97082.3 110.1
382807.28 97082.3 112.2
382812.28 97082.3 114.3
382817.28 97082.3 116.5
382822.28 97082.3 118.5
382827.28 97082.3 120.2
382832.28 97082.3 121.5
382837.28 97082.3 122.2
382842.28 97082.3 123
382847.28 97082.3 123.6
382852.28 97082.3 123.9
382857.28 97082.3 124.1
382862.28 97082.3 124
382867.28 97082.3 123.7
382872.28 97082.3 123
382877.28 97082.3 122.8
382882.28 97082.3 122.5
382887.28 97082.3 121.7
382892.28 97082.3 121.2
382897.28 97082.3 120.7
382902.28 97082.3 120
382907.28 97082.3 119
382912.28 97082.3 118
382917.28 97082.3 117.1
382922.27 97082.3 116.2
382927.27 97082.3 115.2
382932.27 97082.3 114.2
382937.27 97082.3 113.3
382942.27 97082.3 112.6
382947.27 97082.31 111.8
382952.27 97082.31 111.2
382957.27 97082.31 110.6
382962.27 97082.31 110.4
382967.27 97082.31 109.7
382972.27 97082.31 108.8
382977.27 97082.31 107
382982.27 97082.31 104.6
382987.27 97082.31 102.2
382992.27 97082.31 100.1
382997.27 97082.31 98.2
382687.28 97077.3 102.6
382692.28 97077.3 101.8
382697.28 97077.3 101.1
382702.28 97077.3 100.3
382707.28 97077.3 99.3
382712.28 97077.3 98.2
382717.28 97077.3 96.9
382722.28 97077.3 95.3
382727.28 97077.3 93.4
382732.28 97077.3 91.5
382737.28 97077.3 89.8
382742.28 97077.3 89.2
382747.28 97077.3 89.7
382752.28 97077.3 90.8
382757.28 97077.3 92.1
382762.28 97077.3 93.9
382767.28 97077.3 95.8
382772.28 97077.3 97.8
382777.28 97077.3 99.7
382782.28 97077.3 101.7
382787.28 97077.3 103.7
382792.28 97077.3 105.9
382797.28 97077.3 108.1
382802.28 97077.3 110.4
382807.28 97077.3 112.5
382812.28 97077.3 114.6
382817.28 97077.3 116.7
382822.28 97077.3 118.7
382827.28 97077.3 120.2
382832.28 97077.3 121.1
382837.28 97077.3 120.9
382842.28 97077.3 121.7
382847.28 97077.3 122.7
382852.28 97077.3 123
382857.28 97077.3 123.2
382862.28 97077.3 123.3
382867.28 97077.3 123.1
382872.28 97077.3 122.4
382877.28 97077.3 122.2
382882.28 97077.3 122
382887.28 97077.3 121.6
382892.28 97077.3 121.2
382897.28 97077.3 120.7
382902.28 97077.3 120
382907.28 97077.3 119.2
382912.28 97077.3 118.3
382917.28 97077.3 117.5
382922.27 97077.3 116.5
382927.27 97077.3 115.5
382932.27 97077.3 114.5
382937.27 97077.3 113.6
382942.27 97077.3 112.9
382947.27 97077.31 112.1
382952.27 97077.31 111.3
382957.27 97077.31 110.6
382962.27 97077.31 110.2
382967.27 97077.31 109.5
382972.27 97077.31 108.5
382977.27 97077.31 106.7
382982.27 97077.31 104.5
382987.27 97077.31 102.1
382992.27 97077.31 100.2
382997.27 97077.31 98.5
382687.28 97072.3 101.4
382692.28 97072.3 100.7
382697.28 97072.3 100
382702.28 97072.3 99.2
382707.28 97072.3 98.4
382712.28 97072.3 97.3
382717.28 97072.3 96
382722.28 97072.3 94.5
382727.28 97072.3 92.6
382732.28 97072.3 90.7
382737.28 97072.3 89.2
382742.28 97072.3 88.8
382747.28 97072.3 89.4
382752.28 97072.3 90.6
382757.28 97072.3 92
382762.28 97072.3 93.7
382767.28 97072.3 95.7
382772.28 97072.3 97.8
382777.28 97072.3 99.7
382782.28 97072.3 101.7
382787.28 97072.3 103.7
382792.28 97072.3 105.8
382797.28 97072.3 108.1
382802.28 97072.3 110.4
382807.28 97072.3 112.6
382812.28 97072.3 114.8
382817.28 97072.3 116.9
382822.28 97072.3 118.8
382827.28 97072.3 120.1
382832.28 97072.3 120.5
382837.28 97072.3 120.6
382842.28 97072.3 120.7
382847.28 97072.3 121
382852.28 97072.3 121.6
382857.28 97072.3 122.1
382862.28 97072.3 121.9
382867.28 97072.3 121.7
382872.28 97072.3 121.6
382877.28 97072.3 121.6
382882.28 97072.3 121.5
382887.28 97072.3 121.3
382892.28 97072.3 120.8
382897.28 97072.3 120.4
382902.28 97072.3 119.8
382907.28 97072.3 119
382912.28 97072.3 118.2
382917.28 97072.3 117.5
382922.27 97072.3 116.5
382927.27 97072.3 115.5
382932.27 97072.3 114.6
382937.27 97072.3 113.9
382942.27 97072.3 113.1
382947.27 97072.31 112.3
382952.27 97072.31 111.6
382957.27 97072.31 110.6
382962.27 97072.31 109.9
382967.27 97072.31 109.2
382972.27 97072.31 108.1
382977.27 97072.31 106.3
382982.27 97072.31 104.1
382987.27 97072.31 102.1
382992.27 97072.31 100.2
382997.27 97072.31 98.6
382687.28 97067.3 100.5
382692.28 97067.3 99.8
382697.28 97067.3 99.1
382702.28 97067.3 98.3
382707.28 97067.3 97.5
382712.28 97067.3 96.4
382717.28 97067.3 95.2
382722.28 97067.3 93.7
382727.28 97067.3 91.8
382732.28 97067.3 90
382737.28 97067.3 88.6
382742.28 97067.3 88.4
382747.28 97067.3 89.2
382752.28 97067.3 90.4
382757.28 97067.3 91.8
382762.28 97067.3 93.5
382767.28 97067.3 95.5
382772.28 97067.3 97.6
382777.28 97067.3 99.6
382782.28 97067.3 101.5
382787.28 97067.3 103.5
382792.28 97067.3 105.7
382797.28 97067.3 108
382802.28 97067.3 110.3
382807.28 97067.3 112.5
382812.28 97067.3 114.7
382817.28 97067.3 116.9
382822.28 97067.3 118.7
382827.28 97067.3 120
382832.28 97067.3 120.8
382837.28 97067.3 121
382842.28 97067.3 120.8
382847.28 97067.3 120.5
382852.28 97067.3 120.5
382857.28 97067.3 120.6
382862.28 97067.3 120.7
382867.28 97067.3 120.7
382872.28 97067.3 120.9
382877.28 97067.3 120.9
382882.28 97067.3 121.1
382887.28 97067.3 120.7
382892.28 97067.3 120.4
382897.28 97067.3 119.9
382902.28 97067.3 119.4
382907.28 97067.3 118.5
382912.28 97067.3 117.9
382917.28 97067.3 117.2
382922.28 97067.3 116.1
382927.27 97067.3 115
382932.27 97067.3 114.4
382937.27 97067.3 113.8
382942.27 97067.31 113.3
382947.27 97067.31 112.5
382952.27 97067.31 111.7
382957.27 97067.31 110.5
382962.27 97067.31 109.5
382967.27 97067.31 108.7
382972.27 97067.31 107.7
382977.27 97067.31 105.9
382982.27 97067.31 103.8
382987.27 97067.31 101.8
382992.27 97067.31 100
382997.27 97067.31 98.4
382687.28 97062.3 99.6
382692.28 97062.3 98.9
382697.28 97062.3 98.2
382702.28 97062.3 97.4
382707.28 97062.3 96.6
382712.28 97062.3 95.5
382717.28 97062.3 94.3
382722.28 97062.3 92.8
382727.28 97062.3 91
382732.28 97062.3 89.2
382737.28 97062.3 88.1
382742.28 97062.3 88.1
382747.28 97062.3 88.9
382752.28 97062.3 90.1
382757.28 97062.3 91.6
382762.28 97062.3 93.3
382767.28 97062.3 95.3
382772.28 97062.3 97.3
382777.28 97062.3 99.3
382782.28 97062.3 101.3
382787.28 97062.3 103.3
382792.28 97062.3 105.5
382797.28 97062.3 107.8
382802.28 97062.3 110.1
382807.28 97062.3 112.3
382812.28 97062.3 114.5
382817.28 97062.3 116.5
382822.28 97062.3 118.4
382827.28 97062.3 119.9
382832.28 97062.3 121
382837.28 97062.3 121.6
382842.28 97062.3 121.4
382847.28 97062.3 120.8
382852.28 97062.3 120.3
382857.28 97062.3 120.2
382862.28 97062.3 120.2
382867.28 97062.3 120.2
382872.28 97062.3 120.2
382877.28 97062.3 120.2
382882.28 97062.3 120.2
382887.28 97062.3 119.9
382892.28 97062.3 119.6
382897.28 97062.3 119.4
382902.28 97062.3 118.5
382907.28 97062.3 117.7
382912.28 97062.3 117.2
382917.28 97062.3 116.7
382922.28 97062.3 115.6
382927.27 97062.3 114.6
382932.27 97062.3 114.1
382937.27 97062.3 113.6
382942.27 97062.31 113.1
382947.27 97062.31 112.4
382952.27 97062.31 111.5
382957.27 97062.31 110.2
382962.27 97062.31 109
382967.27 97062.31 108.1
382972.27 97062.31 106.8
382977.27 97062.31 105.1
382982.27 97062.31 103.4
382987.27 97062.31 101.4
382992.27 97062.31 99.7
382997.27 97062.31 98
382687.28 97057.3 99
382692.28 97057.3 98.2
382697.28 97057.3 97.4
382702.28 97057.3 96.6
382707.28 97057.3 95.7
382712.28 97057.3 94.7
382717.28 97057.3 93.5
382722.28 97057.3 92
382727.28 97057.3 90.2
382732.28 97057.3 88.5
382737.28 97057.3 87.5
382742.28 97057.3 87.8
382747.28 97057.3 88.7
382752.28 97057.3 89.9
382757.28 97057.3 91.3
382762.28 97057.3 93.1
382767.28 97057.3 95
382772.28 97057.3 97
382777.28 97057.3 99
382782.28 97057.3 101
382787.28 97057.3 103
382792.28 97057.3 105.2
382797.28 97057.3 107.5
382802.28 97057.3 109.8
382807.28 97057.3 112
382812.28 97057.3 114.1
382817.28 97057.3 116.1
382822.28 97057.3 118
382827.28 97057.3 119.6
382832.28 97057.3 120.9
382837.28 97057.3 121.6
382842.28 97057.3 121.5
382847.28 97057.3 121
382852.28 97057.3 120.3
382857.28 97057.3 119.7
382862.28 97057.3 119.3
382867.28 97057.3 119.3
382872.28 97057.3 119.2
382877.28 97057.3 118.8
382882.28 97057.3 118.7
382887.28 97057.3 118.6
382892.28 97057.3 118.5
382897.28 97057.3 118.3
382902.28 97057.3 117.4
382907.28 97057.3 116.8
382912.28 97057.3 116.1
382917.28 97057.3 115.7
382922.28 97057.3 114.9
382927.27 97057.3 114.2
382932.27 97057.3 113.7
382937.27 97057.3 113.2
382942.27 97057.31 112.6
382947.27 97057.31 111.9
382952.27 97057.31 111
382957.27 97057.31 109.8
382962.27 97057.31 108.4
382967.27 97057.31 107.2
382972.27 97057.31 105.8
382977.27 97057.31 104.1
382982.27 97057.31 102.6
382987.27 97057.31 100.9
382992.27 97057.31 99.2
382997.27 97057.31 97.3
382687.28 97052.3 98.6
382692.28 97052.3 97.7
382697.28 97052.3 96.8
382702.28 97052.3 95.8
382707.28 97052.3 94.9
382712.28 97052.3 94
382717.28 97052.3 92.7
382722.28 97052.3 91.2
382727.28 97052.3 89.5
382732.28 97052.3 87.9
382737.28 97052.3 87.1
382742.28 97052.3 87.5
382747.28 97052.3 88.4
382752.28 97052.3 89.7
382757.28 97052.3 91.1
382762.28 97052.3 92.8
382767.28 97052.3 94.7
382772.28 97052.3 96.6
382777.28 97052.3 98.6
382782.28 97052.3 100.6
382787.28 97052.3 102.7
382792.28 97052.3 105
382797.28 97052.3 107.2
382802.28 97052.3 109.4
382807.28 97052.3 111.6
382812.28 97052.3 113.6
382817.28 97052.3 115.6
382822.28 97052.3 117.4
382827.28 97052.3 119.1
382832.28 97052.3 120.3
382837.28 97052.3 120.9
382842.28 97052.3 120.9
382847.28 97052.3 120.3
382852.28 97052.3 119.6
382857.28 97052.3 118.7
382862.28 97052.3 118.5
382867.28 97052.3 118.3
382872.28 97052.3 117.6
382877.28 97052.3 117.3
382882.28 97052.3 117.2
382887.28 97052.3 117
382892.28 97052.3 116.4
382897.28 97052.3 116.5
382902.28 97052.3 115.6
382907.28 97052.3 115.2
382912.28 97052.3 114.9
382917.28 97052.3 114.5
382922.28 97052.3 114.1
382927.27 97052.3 113.5
382932.27 97052.3 112.8
382937.27 97052.3 112.4
382942.27 97052.31 111.7
382947.27 97052.31 111
382952.27 97052.31 110.1
382957.27 97052.31 108.9
382962.27 97052.31 107.7
382967.27 97052.31 106.3
382972.27 97052.31 104.9
382977.27 97052.31 103.2
382982.27 97052.31 101.7
382987.27 97052.31 100
382992.27 97052.31 98.2
382997.27 97052.31 96.3
382687.28 97047.3 98.2
382692.28 97047.3 97.2
382697.28 97047.3 96.2
382702.28 97047.3 95.2
382707.28 97047.3 94.3
382712.28 97047.3 93.3
382717.28 97047.3 92
382722.28 97047.3 90.5
382727.28 97047.3 88.8
382732.28 97047.3 87.4
382737.28 97047.3 86.8
382742.28 97047.3 87.2
382747.28 97047.3 88.2
382752.28 97047.3 89.5
382757.28 97047.3 90.9
382762.28 97047.3 92.6
382767.28 97047.3 94.3
382772.28 97047.3 96.2
382777.28 97047.3 98.2
382782.28 97047.3 100.3
382787.28 97047.3 102.4
382792.28 97047.3 104.7
382797.28 97047.3 106.9
382802.28 97047.3 109
382807.28 97047.3 111.1
382812.28 97047.3 113
382817.28 97047.3 114.8
382822.28 97047.3 116.6
382827.28 97047.3 118.1
382832.28 97047.3 119.3
382837.28 97047.3 119.9
382842.28 97047.3 119.9
382847.28 97047.3 119.3
382852.28 97047.3 118.3
382857.28 97047.3 117.7
382862.28 97047.3 117.5
382867.28 97047.3 116.7
382872.28 97047.3 116
382877.28 97047.3 115.7
382882.28 97047.3 115.4
382887.28 97047.3 115.3
382892.28 97047.3 114.9
382897.28 97047.3 114.6
382902.28 97047.3 114.2
382907.28 97047.3 114
382912.28 97047.3 113.7
382917.28 97047.3 113.5
382922.28 97047.3 112.9
382927.27 97047.3 112.3
382932.27 97047.3 111.8
382937.27 97047.31 111.3
382942.27 97047.31 110.7
382947.27 97047.31 110.1
382952.27 97047.31 109
382957.27 97047.31 108.1
382962.27 97047.31 106.9
382967.27 97047.31 105.3
382972.27 97047.31 104
382977.27 97047.31 102.4
382982.27 97047.31 100.9
382987.27 97047.31 99
382992.27 97047.31 97.1
382997.27 97047.31 95.3
382687.28 97042.3 97.9
382692.28 97042.3 96.8
382697.28 97042.3 95.8
382702.28 97042.3 94.7
382707.28 97042.3 93.8
382712.28 97042.3 92.7
382717.28 97042.3 91.3
382722.28 97042.3 89.8
382727.28 97042.3 88.2
382732.28 97042.3 86.9
382737.28 97042.3 86.5
382742.28 97042.3 86.9
382747.28 97042.3 88
382752.28 97042.3 89.3
382757.28 97042.3 90.7
382762.28 97042.3 92.3
382767.28 97042.3 94
382772.28 97042.3 95.9
382777.28 97042.3 97.8
382782.28 97042.3 99.9
382787.28 97042.3 102.1
382792.28 97042.3 104.3
382797.28 97042.3 106.5
382802.28 97042.3 108.6
382807.28 97042.3 110.5
382812.28 97042.3 112.3
382817.28 97042.3 114
382822.28 97042.3 115.5
382827.28 97042.3 117
382832.28 97042.3 118.2
382837.28 97042.3 118.7
382842.28 97042.3 118.6
382847.28 97042.3 117.8
382852.28 97042.3 116.9
382857.28 97042.3 116.7
382862.28 97042.3 116
382867.28 97042.3 114.8
382872.28 97042.3 114.6
382877.28 97042.3 114.3
382882.28 97042.3 114
382887.28 97042.3 113.7
382892.28 97042.3 113.3
382897.28 97042.3 112.9
382902.28 97042.3 112.7
382907.28 97042.3 112.5
382912.28 97042.3 112.2
382917.28 97042.3 112
382922.28 97042.3 111.4
382927.28 97042.3 111.1
382932.27 97042.3 110.6
382937.27 97042.31 110.1
382942.27 97042.31 109.5
382947.27 97042.31 108.8
382952.27 97042.31 108
382957.27 97042.31 107
382962.27 97042.31 105.9
382967.27 97042.31 104.2
382972.27 97042.31 103.1
382977.27 97042.31 101.4
382982.27 97042.31 99.6
382987.27 97042.31 97.7
382992.27 97042.31 96
382997.27 97042.31 94.1
382687.28 97037.3 97.7
382692.28 97037.3 96.4
382697.28 97037.3 95.3
382702.28 97037.3 94.2
382707.28 97037.3 93.1
382712.28 97037.3 91.9
382717.28 97037.3 90.5
382722.28 97037.3 89.1
382727.28 97037.3 87.7
382732.28 97037.3 86.6
382737.28 97037.3 86.2
382742.28 97037.3 86.7
382747.28 97037.3 87.9
382752.28 97037.3 89.2
382757.28 97037.3 90.5
382762.28 97037.3 92.1
382767.28 97037.3 93.8
382772.28 97037.3 95.6
382777.28 97037.3 97.5
382782.28 97037.3 99.6
382787.28 97037.3 101.9
382792.28 97037.3 104.1
382797.28 97037.3 106.2
382802.28 97037.3 108.3
382807.28 97037.3 110.2
382812.28 97037.3 111.7
382817.28 97037.3 113.1
382822.28 97037.3 114.4
382827.28 97037.3 115.7
382832.28 97037.3 116.7
382837.28 97037.3 117.2
382842.28 97037.3 117
382847.28 97037.3 116.2
382852.28 97037.3 115.8
382857.28 97037.3 115.4
382862.28 97037.3 114.3
382867.28 97037.3 113.7
382872.28 97037.3 113.4
382877.28 97037.3 112.9
382882.28 97037.3 112.5
382887.28 97037.3 112.1
382892.28 97037.3 111.7
382897.28 97037.3 111.3
382902.28 97037.3 111.1
382907.28 97037.3 110.8
382912.28 97037.3 110.5
382917.28 97037.3 110.3
382922.28 97037.3 109.9
382927.28 97037.3 109.5
382932.27 97037.3 109.2
382937.27 97037.31 108.7
382942.27 97037.31 108.3
382947.27 97037.31 107.7
382952.27 97037.31 106.7
382957.27 97037.31 105.5
382962.27 97037.31 104.6
382967.27 97037.31 103.1
382972.27 97037.31 101.9
382977.27 97037.31 100.4
382982.27 97037.31 98.6
382987.27 97037.31 96.7
382992.27 97037.31 94.6
382997.27 97037.31 92.8
382687.28 97032.3 97.4
382692.28 97032.3 96.1
382697.28 97032.3 94.8
382702.28 97032.3 93.6
382707.28 97032.3 92.4
382712.28 97032.3 91
382717.28 97032.3 89.7
382722.28 97032.3 88.4
382727.28 97032.3 87.1
382732.28 97032.3 86.3
382737.28 97032.3 86.1
382742.28 97032.3 86.7
382747.28 97032.3 87.9
382752.28 97032.3 89.2
382757.28 97032.3 90.7
382762.28 97032.3 92.3
382767.28 97032.3 93.9
382772.28 97032.3 95.6
382777.28 97032.3 97.5
382782.28 97032.3 99.6
382787.28 97032.3 101.9
382792.28 97032.3 104.2
382797.28 97032.3 106.3
382802.28 97032.3 108.3
382807.28 97032.3 110
382812.28 97032.3 111.4
382817.28 97032.3 112.4
382822.28 97032.3 113.4
382827.28 97032.3 114.3
382832.28 97032.3 115.1
382837.28 97032.3 115.6
382842.28 97032.3 115.3
382847.28 97032.3 115
382852.28 97032.3 114.8
382857.28 97032.3 113.9
382862.28 97032.3 113
382867.28 97032.3 112.5
382872.28 97032.3 111.8
382877.28 97032.3 111.2
382882.28 97032.3 110.8
382887.28 97032.3 110.5
382892.28 97032.3 110.1
382897.28 97032.3 109.7
382902.28 97032.3 109.5
382907.28 97032.3 109.1
382912.28 97032.3 108.9
382917.28 97032.3 108.6
382922.28 97032.3 108.3
382927.28 97032.3 108
382932.27 97032.31 107.6
382937.27 97032.31 107.3
382942.27 97032.31 106.9
382947.27 97032.31 106.2
382952.27 97032.31 105.3
382957.27 97032.31 104.5
382962.27 97032.31 103.5
382967.27 97032.31 102
382972.27 97032.31 100.9
382977.27 97032.31 99.2
382982.27 97032.31 97.3
382987.27 97032.31 95.3
382992.27 97032.31 93.6
382997.27 97032.31 91.7
382687.28 97027.3 97.2
382692.28 97027.3 95.7
382697.28 97027.3 94.3
382702.28 97027.3 92.9
382707.28 97027.3 91.5
382712.28 97027.3 90.1
382717.28 97027.3 88.9
382722.28 97027.3 87.7
382727.28 97027.3 86.6
382732.28 97027.3 86
382737.28 97027.3 86
382742.28 97027.3 86.7
382747.28 97027.3 87.9
382752.28 97027.3 89.5
382757.28 97027.3 91.1
382762.28 97027.3 92.7
382767.28 97027.3 94.3
382772.28 97027.3 96
382777.28 97027.3 97.8
382782.28 97027.3 99.9
382787.28 97027.3 102.2
382792.28 97027.3 104.5
382797.28 97027.3 106.7
382802.28 97027.3 108.6
382807.28 97027.3 110.1
382812.28 97027.3 111.2
382817.28 97027.3 112.1
382822.28 97027.3 112.6
382827.28 97027.3 113.2
382832.28 97027.3 113.8
382837.28 97027.3 114
382842.28 97027.3 114.1
382847.28 97027.3 114
382852.28 97027.3 113.5
382857.28 97027.3 112.4
382862.28 97027.3 111.7
382867.28 97027.3 111
382872.28 97027.3 110.3
382877.28 97027.3 109.9
382882.28 97027.3 109.5
382887.28 97027.3 109.1
382892.28 97027.3 108.5
382897.28 97027.3 108.1
382902.28 97027.3 107.8
382907.28 97027.3 107.5
382912.28 97027.3 107.2
382917.28 97027.3 107
382922.28 97027.3 106.7
382927.28 97027.3 106.5
382932.27 97027.31 106.1
382937.27 97027.31 105.9
382942.27 97027.31 105.4
382947.27 97027.31 104.7
382952.27 97027.31 104
382957.27 97027.31 103.2
382962.27 97027.31 102.2
382967.27 97027.31 100.8
382972.27 97027.31 99.5
382977.27 97027.31 97.7
382982.27 97027.31 95.8
382987.27 97027.31 93.9
382992.27 97027.31 92.1
382997.27 97027.31 90.2
382687.28 97022.3 97
382692.28 97022.3 95.4
382697.28 97022.3 93.8
382702.28 97022.3 92.2
382707.28 97022.3 90.6
382712.28 97022.3 89.3
382717.28 97022.3 88.1
382722.28 97022.3 87.1
382727.28 97022.3 86.1
382732.28 97022.3 85.7
382737.28 97022.3 85.9
382742.28 97022.3 86.7
382747.28 97022.3 88.1
382752.28 97022.3 89.8
382757.28 97022.3 91.6
382762.28 97022.3 93.4
382767.28 97022.3 95
382772.28 97022.3 96.5
382777.28 97022.3 98.3
382782.28 97022.3 100.4
382787.28 97022.3 102.7
382792.28 97022.3 105.1
382797.28 97022.3 107.2
382802.28 97022.3 109
382807.28 97022.3 110.4
382812.28 97022.3 111.3
382817.28 97022.3 111.9
382822.28 97022.3 112.3
382827.28 97022.3 112.7
382832.28 97022.3 112.9
382837.28 97022.3 113.1
382842.28 97022.3 113.2
382847.28 97022.3 113.1
382852.28 97022.3 112.3
382857.28 97022.3 111.5
382862.28 97022.3 110.8
382867.28 97022.3 109.9
382872.28 97022.3 109.1
382877.28 97022.3 108.4
382882.28 97022.3 107.9
382887.28 97022.3 107.5
382892.28 97022.3 107
382897.28 97022.3 106.7
382902.28 97022.3 106.2
382907.28 97022.3 105.8
382912.28 97022.3 105.6
382917.28 97022.3 105.2
382922.28 97022.3 105.1
382927.28 97022.3 104.9
382932.28 97022.31 104.7
382937.27 97022.31 104.4
382942.27 97022.31 103.9
382947.27 97022.31 103.2
382952.27 97022.31 102.5
382957.27 97022.31 101.7
382962.27 97022.31 100.8
382967.27 97022.31 99.4
382972.27 97022.31 98.1
382977.27 97022.31 96.1
382982.27 97022.31 94.2
382987.27 97022.31 92.4
382992.27 97022.31 90.6
382997.27 97022.31 88.7
382687.28 97017.3 96.8
382692.28 97017.3 95.2
382697.28 97017.3 93.4
382702.28 97017.3 91.6
382707.28 97017.3 89.9
382712.28 97017.3 88.6
382717.28 97017.3 87.5
382722.28 97017.3 86.5
382727.28 97017.3 85.8
382732.28 97017.3 85.5
382737.28 97017.3 85.7
382742.28 97017.3 86.6
382747.28 97017.3 88.2
382752.28 97017.3 90.2
382757.28 97017.3 92.3
382762.28 97017.3 94.1
382767.28 97017.3 95.7
382772.28 97017.3 97.2
382777.28 97017.3 99
382782.28 97017.3 101.1
382787.28 97017.3 103.4
382792.28 97017.3 105.8
382797.28 97017.3 107.9
382802.28 97017.3 109.6
382807.28 97017.3 110.8
382812.28 97017.3 111.5
382817.28 97017.3 112
382822.28 97017.3 112.2
382827.28 97017.3 112.4
382832.28 97017.3 112.4
382837.28 97017.3 112.4
382842.28 97017.3 112.4
382847.28 97017.3 112.2
382852.28 97017.3 111.5
382857.28 97017.3 110.8
382862.28 97017.3 109.9
382867.28 97017.3 109
382872.28 97017.3 108.1
382877.28 97017.3 107.2
382882.28 97017.3 106.8
382887.28 97017.3 106.2
382892.28 97017.3 105.5
382897.28 97017.3 105.1
382902.28 97017.3 104.6
382907.28 97017.3 104.2
382912.28 97017.3 104
382917.28 97017.3 103.8
382922.28 97017.3 103.6
